# .PCD v0.7 - Point Cloud Data file format
VERSION 0.7
FIELDS x y z rgb
SIZE 4 4 4 4
TYPE F F F F
COUNT 1 1 1 1
WIDTH 1152
HEIGHT 1
VIEWPOINT 0 0 0 1 0 0 0
POINTS 1152
DATA ascii
-209.16295 -25.711256 1631 4.7901903e-39
-183.77568 -21.480043 1631 2.3048753e-39
-175.39386 -22.195122 1631.75 2.6718586e-39
-166.95311 -21.493212 1632 5.2522474e-39
-155.63911 -22.195122 1631.75 8.1988894e-39
-149.92596 -21.480043 1631 6.3567943e-39
-3.2439127 -22.185246 1631 1.2925143e-39
5.5833073 -23.990355 1634 1.1992452e-39
14.631239 -23.379295 1632.3334 1.4740385e-39
22.143366 -25.711254 1631 1.1985306e-39
45.918755 -24.300852 1631 2.7647731e-39
54.66861 -25.748224 1633.4375 3.4090579e-39
64.402901 -25.406164 1636.1818 3.7792725e-39
74.420868 -25.745874 1633.0625 5.1611238e-39
85.073112 -25.32818 1632.2858 6.4489885e-39
96.795891 -24.324171 1632.7142 6.8174095e-39
104.09554 -24.018736 1633.3334 5.0689352e-39
115.70078 -25.627739 1634 2.7654919e-39
125.43768 -25.776655 1635.375 1.567669e-39
135.28561 -25.767557 1634.75 1.6591472e-39
144.84995 -25.479618 1634.2 1.8438972e-39
155.41779 -24.410881 1638.3334 1.2900059e-39
165.35063 -24.411734 1638.5 1.0123457e-39
174.85622 -25.220442 1638.4286 1.1246398e-38
181.50749 -27.223429 1637.25 1.3090674e-38
-209.16295 -15.838426 1631 4.8813013e-39
-193.29622 -14.435139 1632 6.9099541e-39
-185.98831 -14.749007 1635.6 2.5800217e-39
-174.45718 -14.80669 1637.2307 1.8435356e-39
-165.17433 -14.46376 1635.3334 3.7774859e-39
-155.66383 -14.435139 1632 4.5161159e-39
-146.64008 -13.277465 1631.5454 3.2253897e-39
-134.567 -11.619583 1632.875 2.3959864e-39
-127.59376 -10.215564 1634 2.1204799e-39
-90.68898 -10.196809 1631 2.7651304e-39
-52.608067 -10.196809 1631 3.0409942e-39
-44.201996 -10.210876 1633.25 3.1331997e-39
-34.802963 -14.357163 1635.6154 3.0417131e-39
-24.558659 -14.744343 1635.3334 3.2246708e-39
-14.553868 -13.038102 1634 2.7633339e-39
-4.6694021 -14.478462 1637.0625 1.5690998e-39
4.5333624 -15.903674 1637.875 1.6598647e-39
15.36377 -14.699405 1635.3334 1.6584241e-39
24.628792 -13.02465 1632.125 1.7502652e-39
35.729912 -12.749184 1633.1 2.0272052e-39
44.792068 -14.448506 1634 2.394557e-39
54.397526 -15.440535 1635.1538 3.1328325e-39
64.936546 -15.317457 1636 3.870399e-39
74.516396 -15.065423 1635.1428 5.1596959e-39
84.182358 -15.318255 1636.1 6.2638826e-39
94.440575 -15.898198 1637.3334 6.8181298e-39
104.74292 -16.541332 1638.5555 4.515767e-39
112.9606 -17.333435 1639 2.857326e-39
128.55115 -18.750757 1639 1.5676676e-39
136.10402 -15.055104 1637.8 2.2126755e-39
145.114 -14.454884 1634 2.6718614e-39
155.09535 -14.461155 1634.9166 1.5665942e-39
164.79526 -16.478811 1638.6 1.0116268e-39
172.48813 -17.333435 1639 6.172773e-39
-212.37367 -1.7375726 1634 7.371993e-40
-209.16295 -1.7343824 1631 8.2939213e-40
-192.35262 -4.2126803 1635 1.2896486e-39
-187.51173 -7.412179 1639 9.2194509e-40
-170.50386 -7.412179 1639 5.5388284e-40
-164.73573 -4.5753179 1638 1.2914423e-39
-154.44073 -4.5635695 1634 1.0144966e-39
-144.63704 -4.5652094 1635 8.2938932e-40
-134.87978 -4.5698643 1636.6666 8.2939073e-40
-125.00842 -4.2061305 1632.5 1.5658712e-39
-118.89706 -3.1447868 1631 2.3034334e-39
-102.975 -2.6757152 1632 3.0417187e-39
-94.546188 -3.6172705 1632.6666 2.7651318e-39
-87.203369 -3.8507864 1631.75 2.5803874e-39
-52.890148 -5.6835146 1631 2.9495091e-39
-44.274033 -4.5686345 1635.9166 3.5930932e-39
-20.267691 -4.5775342 1639 3.9625974e-39
-14.579952 -4.5709434 1636.7778 3.1342689e-39
-4.6758633 -4.577002 1638.5 2.3970584e-39
3.1181264 -3.8688731 1639 2.2116021e-39
18.464554 -5.5194001 1638.3334 1.9346523e-39
25.07642 -4.5745192 1638.3334 1.6587899e-39
33.579338 -5.7897978 1638.4286 1.5680264e-39
67.606293 -7.412179 1639 4.7891239e-39
74.692902 -7.412179 1639 5.0671485e-39
81.779518 -7.412179 1639 5.4362799e-39
137.30475 -4.5757251 1638.6 2.9502461e-39
145.32321 -4.5682125 1636.3334 3.503057e-39
153.96924 -4.5735879 1638 2.4903442e-39
-211.99199 5.8145657 1638.3334 9.2122482e-40
-205.21947 4.1580486 1635.1666 9.2230382e-40
-196.62694 4.2743411 1635.25 1.5676704e-39
-164.16846 5.0568242 1638 1.7520561e-39
-154.57677 5.3345389 1635.4375 1.107051e-39
-144.90225 3.9253492 1638 9.2158355e-40
-134.75517 5.058146 1638.6 8.2867186e-40
-125.00526 4.939045 1633.7273 8.2867186e-40
-113.88229 5.1609273 1631 1.842458e-39
-104.95105 5.3266549 1633.5 2.8555296e-39
-95.255463 5.3373585 1636.75 3.4086963e-39
-85.282875 5.3353372 1635.5 3.2243149e-39
-76.063034 7.0148745 1631.9 3.3165063e-39
-66.712112 9.548852 1631 2.5796644e-39
-53.131096 5.7940731 1632.6666 3.1328297e-39
-46.322685 5.0576491 1638.2 3.6863594e-39
-33.02359 9.5956888 1639 4.4253608e-39
-13.177059 5.343389 1638.5 3.870385e-39
-4.6724386 5.33602 1636.6875 2.5818139e-39
5.2425532 5.3427014 1638.3334 2.1211945e-39
19.417334 2.5090775 1639 1.4765538e-39
25.08181 5.3434997 1638.6666 1.2921625e-39
30.755911 3.9263997 1639 1.3836351e-39
114.37792 9.5956888 1639 1.1992494e-39
137.33855 3.3594711 1639 3.5934533e-39
144.3555 3.9251747 1638.2 4.1480607e-39
152.64563 1.0917552 1639 2.9527699e-39
-162.70859 14.556316 1639 1.4751175e-39
-156.63684 14.906857 1638.5 1.1066951e-39
-132.79799 14.855202 1638.4286 7.3647903e-40
-124.69256 15.210249 1633 8.2903059e-40
-114.75135 15.202545 1632.25 9.2122622e-40
-105.04078 15.224574 1634.8889 1.9353753e-39
-95.33741 15.256351 1638.1666 3.4994585e-39
-85.752808 14.899006 1637.75 3.7746076e-39
-75.429909 15.243999 1636.5 3.3157805e-39
-65.745682 15.565323 1633.25 2.6722131e-39
-55.566151 15.229997 1635.1666 3.0399138e-39
-45.425159 14.556317 1639 3.9622275e-39
-34.428055 15.258769 1638.3334 5.159679e-39
-26.34193 16.074877 1639 6.3557083e-39
-12.897615 14.698049 1639 4.4214035e-39
-5.2422419 14.694324 1638.6 3.3175783e-39
5.5984406 14.910648 1639 3.041346e-39
19.417334 15.264977 1639 2.3952675e-39
25.062813 15.249722 1637.4445 1.7509785e-39
31.674622 17.140017 1637.6666 1.4740357e-39
44.929134 18.099623 1639 8.3118719e-40
107.29131 18.099623 1639 1.841742e-39
112.9606 15.264977 1639 1.1056175e-39
-131.9527 23.201982 1639 7.3576157e-40
-124.98854 23.739256 1636.8889 5.5316537e-40
-114.98135 23.719881 1635.5 5.5316537e-40
-105.02934 25.121376 1634.6666 1.1070524e-39
-95.202278 25.136915 1635.875 1.8438944e-39
-86.514038 24.120049 1638.75 2.3034348e-39
-74.568794 24.232262 1638.3334 1.9357313e-39
-65.543373 25.157373 1637 1.9350138e-39
-56.246082 23.7609 1638.4 1.8435356e-39
-33.835617 25.720938 1637.1 3.040274e-39
-25.93091 25.566246 1638.6364 3.5934505e-39
19.417334 20.934267 1639 2.3045054e-39
25.635183 22.052799 1637.8 1.8428098e-39
32.364491 24.571508 1638.4286 1.6569892e-39
45.842789 25.326447 1637.8889 8.3010959e-40
50.598423 28.020878 1639 7.3827269e-40
111.54328 20.934267 1639 1.1052545e-39
-103.45619 34.490189 1636.6 1.1066923e-39
-95.221901 35.050022 1636.25 1.3836379e-39
-88.299164 32.272846 1639 1.6602248e-39
-71.291298 32.272846 1639 1.9364459e-39
-65.622002 32.272846 1639 1.8442545e-39
-34.38155 35.046574 1636.1111 2.9477182e-39
-26.737341 34.691288 1638.4286 3.4072656e-39
33.590557 33.69017 1639 1.1074083e-39
46.618263 34.532684 1638.6 8.3046552e-40
50.598423 35.107487 1639 9.2265975e-40
-102.47238 40.776779 1639 1.6580682e-39
-97.747978 42.666538 1639 1.7506198e-39
-33.857864 41.890736 1638.2 2.9470049e-39
-1.8425018 49.280712 1639 5.6235481e-39
-1.8425018 54.949997 1639 3.5966889e-39
-14.598402 71.95787 1639 5.546003e-40
6.6614323 397.94199 1639 2.7801762e-40
-11.749403 405.94995 1637 5.5424157e-40
-3.259824 403.6113 1639 3.7021184e-40
5.2398438 401.86621 1637.6666 3.7021184e-40
158.60469 -38.66391 1642 6.4320721e-40
189.84286 -35.824078 1642 1.2721888e-38
194.57591 -35.350773 1642 1.2445297e-38
203.33208 -32.274284 1642 1.1984681e-38
215.40137 -30.144409 1642 9.4972135e-39
177.06361 -21.624912 1642 1.2909148e-38
185.85056 -24.06658 1642.5714 1.2723328e-38
194.85571 -24.250427 1645.0909 1.2262348e-38
205.63756 -24.484552 1643.4166 1.1800298e-38
215.48882 -24.473524 1642.6666 9.6808859e-39
-182.17528 -10.265579 1642 8.2939073e-40
-177.91553 -10.265579 1642 1.0130603e-39
-23.144623 -10.265579 1642 4.0519162e-39
6.673625 -11.685495 1642 1.7520617e-39
10.933374 -11.685495 1642 1.6595059e-39
56.393597 -10.269748 1642.6666 3.1331941e-39
63.470291 -10.265579 1642 4.4217763e-39
74.82962 -10.265579 1642 5.6185202e-39
86.18895 -10.265579 1642 6.172759e-39
94.764397 -10.271832 1643 6.1738352e-39
105.42242 -10.98179 1643 4.4214176e-39
115.54288 -13.110587 1642.7273 2.3041537e-39
124.46032 -14.157136 1644.5454 1.5676746e-39
131.3423 -12.537446 1642 1.9357341e-39
166.02896 -11.404013 1642.4 9.1943116e-40
175.79002 -13.631214 1643.3636 1.0417719e-38
184.37288 -15.417758 1646.4 1.2907357e-38
190.42094 -15.9938 1647 1.2447102e-38
206.23705 -15.175044 1646.5714 1.1984686e-38
214.16953 -15.175048 1646.5714 1.0325536e-38
-184.92514 -4.235837 1644.375 8.3010679e-40
-175.73781 -4.3335972 1644.5454 7.3755383e-40
-34.503952 -4.5859127 1642 4.0533441e-39
-25.994621 -4.5870061 1642.6666 4.513253e-39
6.962832 -5.1579227 1643.2 1.8438986e-39
14.095432 -4.2728586 1642.8889 1.8428168e-39
37.059841 -2.8820128 1642 1.3836407e-39
45.023941 -4.5863853 1642.4445 1.8435399e-39
54.984833 -4.5884175 1643 2.8569645e-39
64.535225 -4.2309332 1642 3.6867266e-39
74.838905 -4.0185051 1642.2 4.6076067e-39
85.164032 -4.2330284 1642.75 5.0689323e-39
94.95208 -4.5969176 1646.25 4.7934315e-39
104.07221 -5.0017295 1645.7142 3.8689654e-39
114.88516 -5.3086052 1646.25 1.8424623e-39
125.8166 -5.0723629 1646.5 1.6598675e-39
132.35992 -4.5903015 1643.5714 2.3985073e-39
158.60469 -4.5859122 1642 8.3011239e-40
164.52069 -4.5924292 1644.3334 2.7658269e-40
173.29558 -4.5983696 1646.6666 7.0021721e-39
-211.99353 9.6132526 1642 9.2122482e-40
-203.47403 9.6132526 1642 1.2900045e-39
-192.65926 6.4262247 1643.625 2.0272094e-39
-187.47748 4.8950582 1647 1.197453e-39
-173.01488 4.8882709 1644.8889 9.2158355e-40
-167.9761 6.7734199 1642 1.3832736e-39
-145.25745 9.6132526 1642 8.3046552e-40
-139.57777 9.6132526 1642 5.5388424e-40
-41.13023 5.8268089 1642 3.8718283e-39
-34.801239 4.5026445 1642.6 4.6987093e-39
-24.58905 5.3581109 1643.5625 5.1607735e-39
-17.464956 5.3535032 1642 5.1578896e-39
14.589875 5.7620454 1642.5714 1.8446104e-39
35.392532 5.4547648 1643.6 1.1074111e-39
45.100895 5.3656125 1645.25 1.4751119e-39
55.100433 5.3691058 1646.4375 1.8449706e-39
65.029388 5.3653469 1645.5 2.3981444e-39
74.948593 5.36271 1644.625 3.3175839e-39
84.882042 5.3622966 1644.1666 3.7789152e-39
95.352409 5.498446 1646.4546 3.6863664e-39
104.77015 5.3582387 1643.9166 2.7647731e-39
114.70654 4.747592 1643.7142 1.3836365e-39
124.69086 5.3584056 1644.1666 1.4754748e-39
133.11861 6.2605214 1642.9091 2.5807406e-39
145.35214 8.6666422 1642 4.3320974e-39
154.79202 5.9638066 1642.4286 2.858412e-39
164.34596 5.493825 1645.1818 4.5989495e-40
172.26189 4.6576843 1647 4.7884008e-39
-212.44669 12.47963 1645.5 1.0130603e-39
-204.95052 14.515883 1645.7142 1.013782e-39
-197.68301 14.926061 1646.1428 2.4874645e-39
-172.60429 15.325516 1645.5 9.2122482e-40
-166.88107 15.865303 1642.4 1.3821988e-39
-151.69302 16.008398 1642.5 1.0144952e-39
-145.31641 15.30028 1642.6666 8.3046552e-40
-138.44185 15.860886 1642 7.3683777e-40
-82.781113 18.132751 1642 3.7738929e-39
-42.313496 16.712835 1642 3.9618659e-39
-22.008688 14.156985 1642 5.9869286e-39
-16.754999 16.002876 1642 5.8018157e-39
-1.8458743 18.132751 1642 3.8696745e-39
2.4138753 18.132751 1642 3.3190161e-39
13.776936 15.297058 1642.4445 2.6725676e-39
36.216808 14.676095 1643.7778 8.3047113e-40
45.058914 14.951644 1643.75 8.3082706e-40
55.072659 15.324707 1645.5834 1.3829204e-39
64.996162 15.318907 1644.6666 1.75134e-39
74.875191 15.303388 1643 2.3030761e-39
84.861198 15.30986 1643.7778 2.3963507e-39
94.89785 15.32362 1645.25 2.4878275e-39
104.3394 14.944924 1642.75 1.8435413e-39
118.84702 15.292919 1642 9.2158495e-40
124.56117 15.297443 1642.4445 9.2230943e-40
134.73994 15.325549 1645.3334 2.3970696e-39
144.58026 15.313274 1644 4.3313771e-39
154.62035 15.322388 1644.9166 3.3190287e-39
164.07249 13.203127 1647 2.7658269e-40
-184.76463 26.733412 1647 7.3683636e-40
-174.9012 25.874048 1644.1428 8.2867186e-40
-165.26155 25.25392 1643.25 6.4607706e-40
-156.34103 23.851377 1644.5454 7.3791256e-40
-144.18793 22.922663 1646 5.5424157e-40
-136.22754 25.729279 1643.4445 6.4500087e-40
-125.42837 29.504059 1642.6666 6.4500087e-40
-115.47392 29.501066 1642.5 6.4500087e-40
-83.516281 27.371189 1642.5 1.93609e-39
-78.521362 28.072166 1642 2.1197596e-39
-54.86713 27.604849 1642.3334 1.8428182e-39
-44.450348 25.235748 1642.25 2.4874617e-39
-37.343788 22.392502 1642 3.4987298e-39
-21.440723 24.380383 1642 3.8707535e-39
-14.64207 25.264366 1644 4.4235643e-39
-5.2407427 24.516115 1645.0769 3.777839e-39
4.6317048 24.182976 1645.5555 2.8576862e-39
15.547846 25.170824 1644.9231 2.211958e-39
24.739971 27.479029 1642.8572 1.5673089e-39
37.122944 25.705639 1642 1.0137834e-39
42.171539 24.759027 1642 8.2975086e-40
55.631672 24.857054 1644.0714 9.2302129e-40
65.028526 25.283524 1645.5 1.1066965e-39
74.947525 25.270901 1644.5625 1.4758307e-39
84.988876 25.298727 1646.25 1.4758377e-39
91.64608 24.353287 1646.5 1.4754804e-39
105.36137 24.69997 1644.3 1.1985348e-39
115.12934 25.873409 1643.9286 8.2903339e-40
124.69216 25.267359 1644.1666 8.3046552e-40
130.60286 24.834421 1647 1.2003228e-39
146.2695 21.036448 1647 4.8820272e-39
151.96646 21.036448 1647 4.8852656e-39
-173.1909 34.836689 1645.2858 3.6913565e-40
-166.11388 34.329357 1647 4.6132988e-40
-133.42284 34.853565 1646.1428 8.2938932e-40
-125.68317 33.834919 1646 4.6168861e-40
-113.49812 33.09819 1644.75 4.6097114e-40
-107.74512 35.921356 1643.75 8.2975086e-40
-83.896599 35.465603 1643.6364 2.3952717e-39
-74.72052 35.576439 1644.25 2.8548065e-39
-63.865154 36.128269 1642.4445 1.9357299e-39
-54.463943 35.225651 1644.4445 1.6595031e-39
-44.443371 35.171749 1642 1.8438916e-39
-21.440722 35.739716 1642 3.7767614e-39
-16.057493 35.200314 1643.3334 4.6075955e-39
-7.263608 34.709156 1647 3.5956085e-39
13.815148 33.85461 1647 2.4892638e-39
25.202284 33.844769 1646.5 1.6595031e-39
35.364136 35.464993 1642.4 9.2302129e-40
42.881496 35.88171 1642 7.3827129e-40
56.112297 34.875244 1644.75 9.2194229e-40
65.016663 33.534321 1645.2 9.2194649e-40
74.177147 32.988255 1646.4 1.3818442e-39
85.027161 32.43037 1647 1.3836393e-39
106.86552 33.379864 1647 8.2939493e-40
112.08773 33.85461 1647 8.2867466e-40
124.90589 33.14249 1647 7.3827129e-40
-172.76033 40.975815 1647 1.1038196e-39
-165.63913 40.975815 1647 1.1945817e-39
-133.73615 44.39399 1647 5.5388284e-40
-111.518 45.248535 1647 8.2938932e-40
-105.92464 45.568348 1644.5454 1.1056161e-39
-94.556946 46.266888 1643.7778 1.7516973e-39
-83.781853 44.808887 1645.7142 2.6714985e-39
-74.204597 44.846535 1646.4546 3.2235876e-39
-65.428566 44.869141 1645.1538 2.671497e-39
-51.699905 42.400055 1647 2.0264836e-39
-44.054276 42.827229 1645.1111 2.1194009e-39
-34.928154 47.367741 1642.8572 2.7633353e-39
-24.596855 45.170582 1644.0625 3.4079831e-39
-14.639435 45.160671 1643.8334 4.3313645e-39
-5.0998659 44.571228 1644.6428 4.0565825e-39
4.8586669 47.447968 1645.7142 4.7001568e-39
13.236424 48.345779 1645.8 3.9629449e-39
38.027233 40.975815 1647 8.3010679e-40
46.521847 43.778683 1645.1666 9.2158355e-40
51.737427 44.252563 1645.1666 1.0137792e-39
-140.00281 56.642456 1647 4.6168861e-40
-135.44524 55.787914 1647 5.5424297e-40
-103.30517 55.562355 1646.625 6.4608127e-40
-96.435692 54.797661 1646.5714 8.3118859e-40
-83.03318 55.218212 1647 1.567676e-39
-73.063507 52.369736 1647 2.9498734e-39
-67.366547 52.369736 1647 2.7665653e-39
-34.60902 52.369736 1647 2.6718572e-39
-21.050915 54.43066 1644.75 2.3041523e-39
-14.634252 55.087448 1643.1111 2.5807392e-39
-7.5255408 55.050583 1642 2.8601987e-39
5.2579174 55.102356 1643.5555 3.4112201e-39
14.368639 55.428963 1644.8 2.8576862e-39
-104.55504 62.814156 1647 6.4464214e-40
-95.851349 60.915173 1647 4.6132988e-40
-81.134201 61.864666 1647 1.1038224e-39
-20.906635 65.947456 1644.6 5.5316677e-40
-14.632546 65.022255 1642.8334 5.5424157e-40
-4.6908302 65.079376 1644.25 5.5388284e-40
5.5530758 64.32225 1646.7 1.2910877e-39
13.810634 64.311165 1646.4 1.8428182e-39
-23.183142 75.046417 1644.5555 5.5388424e-40
-14.629578 75.308075 1642.5 6.4571833e-40
-7.2548919 73.946899 1645.4 7.3827129e-40
-62.502186 88.228027 1646.4 5.5424157e-40
-54.548386 89.399986 1647 8.3011099e-40
-21.587399 84.516869 1647 5.5388284e-40
-15.224065 84.477631 1645.4 5.5424157e-40
-62.479198 93.320641 1645.8 6.453596e-40
-55.260506 92.960571 1647 6.464414e-40
-47.427181 92.248459 1647 8.3082986e-40
-6.1242161 106.49086 1647 6.4464214e-40
5.2697062 109.33934 1647 3.6877691e-40
5.2697062 112.18783 1647 2.7694142e-40
-84.187668 357.28378 1645.7142 6.464358e-40
-92.718018 362.28442 1647 8.3010819e-40
-84.413101 364.69882 1646.1428 6.453596e-40
-77.336227 361.42987 1647 9.2158355e-40
-40.305981 368.55109 1647 5.535241e-40
-34.60902 368.55112 1647 2.7765888e-40
-25.572144 367.37781 1646 1.8618212e-40
-17.518139 368.55109 1647 1.8582339e-40
15.559121 365.05896 1646.0769 4.6097114e-40
25.209072 362.85413 1647 5.5316537e-40
30.906031 362.85413 1647 3.6949438e-40
-84.253967 373.02728 1647 3.6913565e-40
-42.584763 375.1026 1647 5.5316537e-40
-34.589306 375.44547 1646 4.6097114e-40
-24.602854 375.14594 1644.6875 2.7730015e-40
-17.518139 375.67227 1647 9.3270426e-41
7.548491 376.52686 1647 2.7694142e-40
14.629003 375.26538 1647 1.8510592e-40
53.693878 378.52075 1647 5.5208917e-40
-61.669586 388.49045 1647 6.4464354e-40
-54.548386 388.49045 1647 5.535241e-40
-43.429436 385.90802 1645.4445 5.535241e-40
-34.581581 385.328 1645.6666 4.6132988e-40
-24.59199 384.91898 1643.9166 1.8582339e-40
-14.669658 385.64197 1647 1.8546465e-40
-4.699975 387.06622 1647 2.7730015e-40
5.2642879 385.32858 1645.6666 1.8618212e-40
13.810709 385.48529 1646.3334 2.7730015e-40
57.681751 386.21167 1647 3.6877691e-40
62.239319 388.49045 1647 3.6913565e-40
-72.318764 396.8551 1646.25 7.3647763e-40
-64.299026 395.12689 1643.8 6.4500087e-40
-54.44379 394.85117 1643.8334 4.6168861e-40
-44.476555 394.71216 1643.25 3.7021184e-40
-34.555626 395.01416 1644.5 3.6913565e-40
-24.891254 394.83295 1644.9333 2.7765888e-40
-13.957537 394.18741 1647 2.7801762e-40
-4.6969104 395.17447 1645.1875 2.7765888e-40
4.9712992 393.70157 1642.6 1.8546465e-40
14.933768 395.27106 1644.4 3.6913565e-40
22.36059 398.46014 1647 2.7765888e-40
57.112053 392.47833 1647 1.8618212e-40
63.663559 392.76318 1647 3.6949438e-40
-53.92115 403.43106 1645.2 5.535241e-40
-43.928852 404.27386 1644 5.5388424e-40
-34.950401 403.99576 1643.8572 6.453596e-40
-25.210062 403.76398 1644.5714 6.4500087e-40
-14.177918 404.57248 1644.8334 4.6168861e-40
-6.1086793 403.09317 1642.6666 5.5316537e-40
15.21439 404.8223 1643.9166 4.6312914e-40
23.062527 406.10745 1646.25 8.3191446e-40
66.772141 406.00226 1646.4 2.0318968e-39
73.189468 406.18335 1646.1428 2.3088396e-39
85.027161 402.73285 1647 1.2914521e-39
94.047356 403.68234 1647 2.3985227e-39
113.51197 402.73285 1647 3.0449599e-39
67.936279 411.27829 1647 7.0194501e-39
70.78476 411.27829 1647 6.7435807e-39
186.48729 -10.315594 1650 1.3090312e-38
196.073 -14.268752 1650.3077 1.2354544e-38
202.7532 -13.739996 1650 1.2077597e-38
217.87764 -10.315594 1650 8.4855797e-39
108.0114 -3.1814213 1650 3.3150728e-39
115.14556 -3.1814213 1650 1.7509869e-39
123.23096 -3.657033 1650 1.2914465e-39
179.3531 -4.6082559 1650 1.3091391e-38
185.41093 -4.6154075 1653.1111 1.3183581e-38
195.55092 -4.6188278 1654.25 1.2538576e-38
205.14543 -4.6107388 1650.8889 1.2352387e-38
215.29613 -4.6116242 1652.0834 9.8663505e-39
-182.49213 5.6649528 1650 1.0119841e-39
-177.35551 6.8064208 1650 1.0119841e-39
94.313782 5.0942192 1650 3.7789208e-39
167.93843 3.9527514 1650 8.268782e-40
177.75935 6.1008701 1651.75 1.2352744e-38
185.70665 5.4007111 1655.75 1.3183584e-38
195.74971 5.4013758 1655.9375 1.2905918e-38
205.20009 5.3852305 1651.3334 1.2261628e-38
215.43347 5.3891263 1653.125 1.0234053e-38
-214.67271 16.811228 1651.6666 1.0116254e-39
-207.31905 18.221098 1650 9.2122902e-40
-192.76534 15.938164 1650 2.8562414e-39
-184.56422 15.373638 1650.6666 1.2892857e-39
-177.35551 15.367428 1650 7.361189e-40
165.65549 17.079632 1650 2.7658269e-40
175.31432 15.388959 1652.25 8.3883366e-39
185.84729 15.432624 1657 1.3367615e-38
195.66829 15.415893 1655.25 1.272225e-38
205.36636 15.392264 1652.6666 1.2261992e-38
214.78011 15.126009 1654.7 1.0972337e-38
-213.06488 22.08169 1654 5.5316677e-40
-204.87103 25.408886 1653.25 9.2158776e-40
-194.5954 25.371788 1651 1.1063335e-39
-185.91652 22.977213 1650 9.2122482e-40
-177.35551 21.074766 1650 8.2867186e-40
-154.12158 28.525944 1651.8 7.3791256e-40
-145.75328 27.88055 1651.625 7.3755523e-40
-2.3304789 28.684549 1650 4.0519134e-39
7.1817513 28.684549 1650 2.9487986e-39
10.993301 28.2269 1651 2.7647675e-39
97.238739 25.94548 1651.2 1.3836407e-39
102.30405 28.208939 1650 1.1067007e-39
136.19818 25.483036 1651.0769 2.4885449e-39
144.99048 26.244802 1651.9 3.8707577e-39
155.73325 26.007919 1652.4286 3.0413656e-39
165.38449 25.403532 1653 4.6025368e-40
174.17285 25.433397 1655 7.2809156e-39
182.80345 24.617952 1658 1.3643483e-38
195.74742 25.447323 1655.9375 1.3089951e-38
205.20094 25.376335 1651.3334 1.2537497e-38
214.69382 25.388569 1652.1428 1.0604996e-38
220.36778 25.478205 1658 6.830024e-39
-203.93134 34.782829 1657.25 8.2974946e-40
-195.146 35.466797 1655.6666 7.371951e-40
-184.66016 35.376251 1651.5 7.3647763e-40
-177.35551 36.769943 1650 4.6025368e-40
-162.7578 36.32848 1651.5 7.3647763e-40
-154.99213 35.452522 1655 7.371951e-40
-144.02516 35.140766 1653.9 1.1063349e-39
-137.40416 36.769943 1650 1.1056133e-39
-123.16068 36.77766 1650.3334 4.6097114e-40
-115.14553 37.055309 1650 8.2867186e-40
-11.842709 35.343109 1650 4.0551392e-39
-2.8740351 35.750774 1650 3.3197391e-39
5.2822061 35.358162 1650.6666 3.1339073e-39
15.558533 35.645958 1650.8 2.4885407e-39
25.25499 38.196781 1650 1.6598619e-39
59.49902 38.196781 1650 1.0134205e-39
65.20636 37.483364 1650 8.3011099e-40
75.845505 36.993622 1650.8572 1.1070552e-39
85.199821 36.77766 1650.3334 1.2914465e-39
95.257416 35.375813 1651.5 1.0152169e-39
104.2065 36.294331 1650 8.3010959e-40
116.62624 36.073456 1650.75 9.2050736e-40
125.16443 37.064568 1650.4 8.2903059e-40
135.06062 35.169834 1654 1.4754776e-39
145.16 35.783501 1657.1 3.1360681e-39
153.69829 33.363846 1658 4.0558706e-39
164.96439 34.929161 1657.4 6.4392607e-40
173.77083 33.363846 1658 6.6333896e-39
181.65646 34.080723 1658 1.3643845e-38
196.81248 34.250301 1656.2858 1.3090665e-38
205.12125 35.743385 1655.3 1.2721884e-38
214.37558 35.471634 1656 1.1434035e-38
-215.49298 45.550739 1658 5.5244931e-40
-201.15546 41.249481 1658 8.2939353e-40
-183.93851 43.402241 1655 8.279544e-40
-175.17973 46.295017 1653.7 7.3647763e-40
-165.46802 45.336727 1654.0769 6.4464214e-40
-155.27538 42.683239 1658 6.4500087e-40
-143.93561 45.780483 1654.3846 9.2194229e-40
-134.95815 45.942451 1650 6.453596e-40
-124.72209 45.390415 1652.125 8.2903199e-40
-115.20213 45.353966 1650.8 8.2867326e-40
-91.745438 49.611454 1650 1.7534966e-39
-88.891769 48.18462 1650 1.8442573e-39
-77.477097 49.611454 1650 3.1328325e-39
-60.379467 46.777832 1650.6666 2.3037991e-39
-55.285927 45.959743 1652 2.027208e-39
-45.278893 48.397041 1650.2858 2.2112378e-39
5.8552618 42.222462 1651.2 3.5938107e-39
16.186485 43.932518 1651.0909 2.9484399e-39
25.290413 45.394627 1652.3334 2.0279255e-39
34.859577 45.975334 1651.1428 1.0148582e-39
43.839237 46.796726 1651.3334 7.371993e-40
57.293171 45.964722 1652.2 1.013419e-39
65.247581 45.361797 1651.0834 9.2230242e-40
75.378433 45.443336 1654 1.2910835e-39
85.359581 45.429363 1653.4166 1.7517002e-39
95.327194 45.407803 1652.75 1.1988893e-39
105.30112 45.396011 1652.25 6.4679593e-40
114.80335 45.032467 1653.8572 7.3791256e-40
124.63335 45.859528 1654.2142 7.371965e-40
134.84865 45.445507 1654.1428 1.1988907e-39
144.20152 45.14473 1657.4546 3.5012591e-39
206.03026 42.683239 1658 1.2629337e-38
214.63277 41.249481 1658 1.1709899e-38
-166.74539 52.719501 1658 7.361189e-40
-152.40787 57.02076 1658 1.0119869e-39
-145.65372 55.129265 1652.9 8.2831313e-40
-133.16354 54.623001 1650.5 6.4607987e-40
-124.75092 55.40218 1652.5 6.4607987e-40
-114.69226 55.374672 1651.6666 5.5388284e-40
-108.86745 55.318798 1650 6.4607847e-40
-91.745445 55.318798 1650 1.1074125e-39
-88.891762 55.318798 1650 1.1077755e-39
-75.082283 56.173931 1651.1428 1.6605821e-39
-64.094452 55.916695 1650.8 1.6613066e-39
-54.77034 55.442303 1653.6666 1.5683907e-39
-44.697906 55.369953 1651.5 1.2910863e-39
-34.679642 56.757374 1650.3334 1.6584269e-39
-26.467762 55.675499 1650 1.9357327e-39
19.547649 53.89196 1650 3.0406355e-39
25.275013 55.363876 1651.3334 2.0282856e-39
35.334255 55.462147 1654.25 1.2910863e-39
45.310032 55.419949 1653 7.382741e-40
55.341244 55.439655 1653.5834 7.3791256e-40
65.362701 55.4529 1654 8.3010819e-40
73.311447 54.794697 1655.75 1.199248e-39
85.595039 52.719501 1658 2.027564e-39
95.500023 55.514172 1655.75 1.2921639e-39
105.54011 55.521687 1656 9.2230522e-40
112.50928 55.567932 1657.4 6.464386e-40
125.39621 55.893867 1657.6666 6.4571833e-40
134.23517 55.541729 1656.6666 1.0141421e-39
140.07764 55.587006 1658 2.210886e-39
-152.40787 62.755768 1658 1.0116282e-39
-144.78831 65.419952 1652.8125 7.3683636e-40
-134.66472 65.364357 1651.4166 6.4500087e-40
-124.70451 65.380524 1651.875 6.4500087e-40
-114.65667 65.352371 1651.1666 5.535241e-40
-104.38312 68.364128 1650 1.19709e-39
-94.404091 66.229004 1651.6 1.012703e-39
-85.459389 66.139023 1651.5385 8.2974806e-40
-74.803459 65.467972 1654 7.3791396e-40
-64.781723 65.457657 1653.75 7.3791396e-40
-54.837753 65.534431 1655.75 8.3011099e-40
-46.254505 65.157402 1656.0909 7.3683636e-40
-33.355614 64.092735 1655.5 7.3827129e-40
-26.396666 64.977959 1651.5454 6.453624e-40
3.8524704 69.587135 1650 8.3082846e-40
17.657049 66.773918 1651 2.5803776e-39
25.285601 65.385788 1652 2.3037921e-39
35.331066 65.465324 1654.0625 1.6591472e-39
45.338161 65.464088 1654 8.3046552e-40
55.362694 65.474846 1654.25 7.3755383e-40
65.290825 65.391235 1652.1666 1.1056133e-39
74.326637 66.481453 1656.6364 1.2910807e-39
96.204811 66.483528 1658 1.9353711e-39
105.92825 65.753616 1658 9.2266115e-40
111.97609 66.483528 1658 8.2974946e-40
124.22005 65.579712 1656.875 7.371965e-40
133.90562 65.148262 1655.8182 9.2158636e-40
141.03346 62.277851 1658 1.9357313e-39
-152.40787 74.225792 1658 4.6097114e-40
-144.53604 75.01915 1656.5 4.6168861e-40
-135.03859 75.570587 1656 5.5280664e-40
-124.96134 75.535782 1655.25 7.3683636e-40
-114.71368 75.385742 1652 7.3755523e-40
-104.67001 75.355598 1651.3334 1.0144995e-39
-94.863777 75.507431 1654.6666 1.1978117e-39
-84.871132 75.523506 1655 9.2086749e-40
-74.878563 75.55249 1655.6666 1.0134219e-39
-64.733063 75.404472 1652.4166 1.1988865e-39
-54.692284 75.354942 1651.3334 1.1985306e-39
-45.148453 75.728928 1653.8182 9.2158776e-40
-34.405731 76.420158 1656.7142 7.3683636e-40
-28.99983 75.385742 1652 9.2086749e-40
-2.8748629 76.170212 1651.2858 1.19709e-39
5.2937465 75.49453 1654.3334 1.9353796e-39
15.312546 75.525665 1655 2.5807448e-39
25.341724 75.555946 1655.6666 2.5811049e-39
35.309483 75.435898 1653.0834 2.3037921e-39
45.348309 75.492218 1654.3334 8.3010959e-40
55.363556 75.487984 1654.25 6.4571833e-40
65.365013 75.476425 1654 4.6240607e-40
74.633018 75.877327 1656.5 7.3899296e-40
85.021538 77.380051 1658 1.4751175e-39
96.491562 75.946297 1658 1.8438972e-39
105.25793 74.840263 1658 1.2907248e-39
114.2701 75.659546 1658 9.2158495e-40
122.15573 73.508911 1658 6.4500087e-40
-138.07034 81.394554 1658 5.5316537e-40
-122.67978 85.148979 1656.6666 8.2974946e-40
-114.74883 85.412834 1652.5 1.1059804e-39
-104.70712 85.383705 1651.9375 1.1978131e-39
-95.223221 85.740158 1656.3636 7.3863143e-40
-83.966576 85.591148 1656 6.453596e-40
-74.815636 85.500053 1654.25 8.2903199e-40
-65.592621 83.915382 1651.1818 9.2122482e-40
-54.684547 83.910797 1651.1111 9.2194369e-40
-45.032608 85.73893 1653.3334 1.0137834e-39
-34.799007 85.590706 1656 7.3791256e-40
-27.081398 85.815941 1651.1111 6.4571833e-40
-11.842709 88.135986 1650 6.4607706e-40
-4.7131405 85.424774 1652.75 1.4736741e-39
4.7285991 85.633781 1656.8 1.7509925e-39
16.331432 86.014145 1657.7693 2.3045264e-39
25.377441 85.695808 1658 2.2119748e-39
35.064781 85.256248 1655 1.3832904e-39
45.419132 83.848389 1656.875 9.2338843e-40
55.411591 85.582764 1655.75 7.3683636e-40
65.345978 85.464516 1653.5 4.6132988e-40
75.493011 85.618286 1656.5 7.3827129e-40
85.544281 85.642395 1657 1.5683865e-39
95.576103 85.647522 1657.0625 2.0286458e-39
102.80007 84.262054 1658 1.6612982e-39
-122.01231 95.732071 1658 2.855524e-39
-114.58468 94.718498 1657 1.382926e-39
-105.01546 95.661629 1656.75 1.3822058e-39
-94.676331 95.346367 1651.3334 1.290729e-39
-84.719185 95.390312 1652.0834 6.4644e-40
-74.777092 95.471153 1653.4445 7.361189e-40
-66.196205 96.685844 1653.2858 7.3647763e-40
-54.116749 97.053726 1651.2 6.4571973e-40
-44.155045 95.991882 1652.6 9.2158916e-40
-34.796989 95.617744 1656 8.3010819e-40
-24.740515 95.484596 1653.6666 5.5388424e-40
-14.714769 95.387939 1652 4.6133128e-40
-4.7115417 95.361443 1651.5834 9.2014862e-40
5.2944098 95.499962 1654 7.3791536e-40
15.333646 95.674339 1657 8.3118719e-40
25.367811 95.692421 1657.3334 1.0152239e-39
33.127754 96.042 1656.2858 1.0148624e-39
57.875828 96.209999 1658 2.7658269e-40
65.390205 95.539604 1654.6666 2.7658269e-40
75.459045 95.603905 1655.75 7.3683777e-40
85.544579 95.675484 1657 1.3836365e-39
95.240288 95.47139 1658 2.2123168e-39
-121.82116 102.42292 1658 2.5814552e-39
-115.70381 103.76109 1658 3.5938093e-39
-104.47958 103.10567 1658 4.051912e-39
-94.522583 105.07349 1653.1818 3.9615114e-39
-84.736427 105.41496 1652.4375 2.4885477e-39
-75.817009 105.12032 1655.3334 1.5655152e-39
-63.67886 104.92431 1656 9.2050736e-40
-54.813343 105.57697 1655 8.2867186e-40
-45.141243 104.63094 1655.6923 7.3827129e-40
-37.707672 102.90084 1658 8.3082425e-40
-24.461618 104.71685 1657.0769 5.5388424e-40
-14.73553 105.52934 1654.25 6.45361e-40
-4.5055184 105.07214 1650.2858 5.5244791e-40
5.2866473 104.99394 1652 3.6913565e-40
15.312675 105.54377 1654.5 5.5244791e-40
25.075956 105.20428 1655.2727 1.2903675e-39
33.953781 104.25184 1656.6666 1.0152211e-39
59.787495 101.46709 1658 3.6913565e-40
66.23938 102.18396 1658 3.6877691e-40
75.558777 103.76109 1658 5.5244791e-40
85.595039 102.90085 1658 1.4740357e-39
92.285889 102.42292 1658 2.3941955e-39
-95.057777 111.98127 1658 4.6994324e-39
-84.984993 112.88602 1657.25 3.686728e-39
-76.348557 112.83493 1656.5 2.48711e-39
-64.204659 112.16914 1657.25 6.4571833e-40
-55.445423 114.00237 1656.8 3.6913565e-40
-46.310192 111.02544 1658 8.2938932e-40
-24.321861 112.91441 1657.6666 6.464358e-40
-14.753942 115.68993 1656.3334 4.6132988e-40
-4.7138333 115.39383 1652.0834 4.6097114e-40
5.2865043 115.76231 1652.25 3.6841818e-40
13.895261 114.45818 1656.2858 4.6061241e-40
25.377439 113.41502 1658 5.5424437e-40
31.112448 111.50336 1658 6.4715606e-40
-63.515217 125.84088 1658 5.5460591e-40
-54.912704 127.27463 1658 5.5424157e-40
-24.138704 125.10638 1656.9091 9.2230802e-40
-14.735528 125.55561 1654.25 6.4464354e-40
-4.7187185 125.55626 1654.25 2.7801762e-40
5.036437 125.2438 1655.2727 3.6877691e-40
11.039912 122.97337 1658 2.7658269e-40
-53.478954 134.44339 1658 5.5352551e-40
-31.972664 130.14214 1658 1.107058e-39
-24.087025 133.00964 1658 7.3863423e-40
-14.751548 135.71498 1656 7.3755383e-40
-6.1595407 135.03929 1656.5 6.453596e-40
5.3049016 132.05382 1658 3.6949438e-40
-53.478951 141.61215 1658 3.7021605e-40
-40.575176 147.34717 1658 8.2975086e-40
-20.502644 141.61215 1658 5.5316537e-40
-14.045374 142.26498 1657.25 4.6168861e-40
-9.0326233 141.61215 1658 6.4571833e-40
-42.00893 150.21466 1658 9.2086749e-40
-1.8638608 284.98743 1658 5.546003e-40
3.3932316 286.89908 1658 6.4571833e-40
5.3049016 292.87308 1658 5.546003e-40
-11.900128 319.39749 1658 5.5388424e-40
-20.502644 328 1658 5.5424157e-40
-14.400471 325.26901 1656.875 7.3791256e-40
-9.0271749 324.93466 1657 1.0127016e-39
23.943686 328 1658 5.535241e-40
-20.502644 335.16876 1658 7.3755383e-40
-14.767634 335.16873 1658 7.3755383e-40
-9.0326233 335.16873 1658 8.2903059e-40
19.068928 334.88199 1658 5.5316537e-40
25.377441 335.16876 1658 6.453596e-40
31.112448 338.03625 1658 7.371951e-40
-81.364098 347.755 1656.5 9.2158355e-40
-76.418991 346.63879 1658 9.2122482e-40
-64.495255 345.12357 1656.3636 7.371951e-40
-56.824375 347.1167 1658 1.0119841e-39
-20.502644 345.20499 1658 8.2938932e-40
-14.767634 345.20502 1658 8.2974806e-40
-9.0326233 342.33752 1658 9.2158355e-40
16.767025 345.06558 1657.3334 7.3755383e-40
25.321314 344.44153 1654.3334 7.3755383e-40
32.284344 345.39673 1655 7.371951e-40
-120.86532 359.54254 1658 9.2158355e-40
-115.13031 359.54257 1658 1.1056133e-39
-102.582 357.19803 1656 9.2158355e-40
-94.838722 354.41479 1654.1666 7.3827129e-40
-85.324516 352.67377 1652.7 6.464358e-40
-74.738815 354.07675 1652.5834 9.2086609e-40
-64.757996 354.19519 1653.125 8.2867186e-40
-54.862152 354.91776 1656.5 8.2938932e-40
-45.417458 356.98834 1656.8 4.627648e-40
-34.443626 356.62753 1656.125 1.0123429e-39
-24.755404 354.55392 1654.8125 6.4571833e-40
-14.741409 354.64975 1655.25 7.3755383e-40
-5.1209035 356.61588 1657.7273 6.4571833e-40
5.3030539 356.95215 1657.625 6.4571833e-40
15.294533 354.20633 1653.1875 7.3755383e-40
25.281775 353.89847 1651.75 8.2974806e-40
34.206978 356.00677 1654.9 9.2122482e-40
57.636868 358.82568 1658 1.105972e-39
65.438995 355.64825 1655.9 8.2974806e-40
72.378731 357.11844 1657.4 6.4607706e-40
-141.89369 367.18921 1658 6.4607847e-40
-135.09526 364.98267 1656.6666 6.4607847e-40
-124.96048 364.67087 1655.25 8.3010679e-40
-114.81783 364.85703 1653.5 1.2889255e-39
-104.42198 365.0687 1651.8667 1.2885668e-39
-95.822105 366.36874 1650 8.2867186e-40
-74.087486 365.68958 1650.8 6.4571833e-40
-65.162399 365.00882 1653.0714 7.3791256e-40
-54.788502 365.87997 1654.25 5.5424157e-40
-45.020119 365.25775 1652.7333 5.5388284e-40
-34.704147 363.83231 1651.4445 6.4500087e-40
-24.124073 363.11987 1650.8 7.3755383e-40
-14.455939 365.05215 1652.2727 5.5316537e-40
-4.7228532 366.08554 1655.1875 6.4464214e-40
5.2879958 365.63956 1653.1666 4.6097114e-40
13.840313 360.66141 1650 1.013419e-39
25.25499 369.22241 1650 3.6877691e-40
36.027081 365.62192 1653.0834 3.6949438e-40
45.654808 366.06549 1655.1 5.535241e-40
55.359573 365.86401 1654.1875 3.6913565e-40
65.313736 365.54947 1652.75 4.6061241e-40
72.604454 364.83777 1656 3.6949438e-40
83.683372 367.18921 1658 4.5989495e-40
108.53507 365.27756 1658 2.7694142e-40
115.12344 364.93649 1655.2727 1.8474719e-40
121.84266 365.05554 1657 1.8474719e-40
-141.65474 373.8801 1658 4.6132988e-40
-134.89815 375.0614 1657.4546 4.6168861e-40
-125.05495 374.97522 1656.5 4.6097114e-40
-114.86518 374.83914 1654.1818 5.5280664e-40
-105.1039 375.15277 1652.9231 4.6061241e-40
-94.68869 375.284 1651.5555 2.7694142e-40
-84.896629 376.64194 1650 2.7730015e-40
-74.672523 375.18262 1651.1111 6.442834e-40
-64.395699 375.10202 1654.3572 4.6168861e-40
-54.736649 375.53683 1652.6666 4.6204734e-40
-48.22699 375.64319 1650 6.453596e-40
-13.269544 374.92972 1650 2.7694142e-40
-4.7142434 375.38419 1652 1.8546465e-40
3.8524704 374.92978 1650 2.7658269e-40
19.547649 377.78342 1650 1.8510592e-40
25.258774 374.98062 1650.2222 3.6805945e-40
35.655846 375.36493 1653.8462 3.6877691e-40
44.990005 374.74356 1651.7 2.7765888e-40
55.69413 373.97855 1650 2.7730015e-40
65.304497 375.48541 1652.4445 2.7730015e-40
73.459137 374.68613 1657.3334 1.8546465e-40
84.161285 372.44635 1658 3.6841818e-40
114.27009 375.31381 1658 1.8510592e-40
121.91678 375.79178 1658 3.6877691e-40
-140.93785 385.3501 1658 4.6097114e-40
-135.17622 385.27316 1657.6666 4.6097114e-40
-125.64949 384.49976 1656.8 6.4464214e-40
-115.30712 384.38412 1655.375 5.5280664e-40
-104.85785 384.48154 1654.25 4.6132988e-40
-94.771103 384.18973 1653 1.8546465e-40
-84.415489 385.03763 1651.7333 1.8546465e-40
-74.683441 385.22775 1651.3334 2.7730015e-40
-65.121964 384.76993 1652 2.7765888e-40
-54.699265 383.8515 1651.5555 4.6169001e-40
-47.798939 382.92001 1650 5.535241e-40
-13.269544 380.63708 1650 9.3270426e-41
-4.7100277 382.23691 1650.75 3.6913565e-40
2.4256361 380.63708 1650 2.7765888e-40
19.547649 384.9176 1650 2.7730015e-40
25.022497 384.90921 1651.6364 1.8546465e-40
35.37611 384.94507 1656.25 3.6913565e-40
45.541958 384.97452 1651.9091 2.7730015e-40
54.148392 385.27429 1650 2.7730015e-40
65.52858 384.88828 1651.5454 1.8546465e-40
73.660118 387.09576 1656.7142 3.6877691e-40
87.028793 388.21759 1658 3.6913565e-40
95.693047 386.87036 1656.3334 4.5989495e-40
104.23383 388.21759 1658 4.6025368e-40
114.2701 385.3501 1658 9.3629158e-41
122.8479 385.27319 1657.6666 2.7730015e-40
-143.11147 396.02277 1657.3334 4.6168861e-40
-135.03889 394.90683 1656 3.6985311e-40
-126.36137 395.86426 1658 5.5316537e-40
-102.22653 393.95261 1658 4.6132988e-40
-95.020126 393.79535 1657.3334 2.7694142e-40
-85.143753 395.38638 1653.8462 1.8582339e-40
-75.574654 393.95419 1650 4.6132988e-40
-16.123215 397.75909 1650 1.8618212e-40
19.547649 392.05176 1650 1.8510592e-40
25.926994 394.48413 1652.2222 2.7730015e-40
35.410187 395.34113 1657.8125 3.6949438e-40
45.064537 395.38702 1654.4 4.6097114e-40
53.818638 396.33453 1650.8572 2.7765888e-40
66.347824 396.04688 1650 3.6949438e-40
75.61338 394.44403 1652.8667 2.7730015e-40
85.388115 394.42856 1654 1.8546465e-40
95.212029 394.33386 1652.4 1.8510592e-40
105.44581 394.54868 1654.5 3.6877691e-40
115.09832 394.57388 1653.4 1.8546465e-40
125.17805 394.67087 1656.3846 1.8546465e-40
131.47513 399.68762 1658 1.793662e-42
-143.57579 404.76819 1655.3334 6.4500087e-40
-134.79338 402.7706 1653 5.5388284e-40
-126.43523 404.08008 1655.8572 5.535241e-40
-81.965645 404.48758 1654.1666 2.7765888e-40
-75.511559 403.85245 1651.5714 2.7801762e-40
-20.403717 402.03961 1650 4.6097114e-40
-16.598825 401.564 1650 4.6132988e-40
26.912428 404.66629 1651.5714 3.7057478e-40
35.051731 405.46722 1656.3846 5.5388564e-40
45.422562 405.17981 1657 6.4572113e-40
55.545959 404.93472 1651.3334 1.1077769e-39
63.98336 403.46646 1650 1.1074224e-39
76.621033 403.14935 1650 1.0163029e-39
85.182037 405.02295 1650 4.1513145e-39
94.574623 403.94498 1650.2858 3.7832536e-39
105.28519 401.09836 1652 6.4572254e-40
116.66202 403.05823 1651.25 3.046399e-39
125.73213 405.03989 1654.1 6.4572113e-40
132.63609 406.02933 1657.1428 9.2911693e-41
-146.40747 410.4137 1655 9.219535e-40
36.780788 411.84482 1655 2.4021254e-39
44.468456 411.86548 1657 2.4932393e-39
55.593224 413.72202 1655.1428 4.8968039e-39
63.904503 414.27145 1653.25 7.9381722e-39
76.683525 413.78894 1651.3334 8.4034664e-39
85.390266 413.02628 1654 1.1719631e-38
134.67513 412.13004 1655 7.1746481e-43
140.07764 411.15765 1658 3.6770072e-40
220.76651 16.906223 1661 6.6449167e-39
-214.73381 27.535191 1661 1.8582339e-40
187.73053 26.960649 1661 1.3642403e-38
-213.43387 35.948528 1661.5 5.5388284e-40
-207.26482 37.015076 1661 8.3010679e-40
-149.81096 37.015076 1661 8.3118439e-40
155.26912 37.302345 1661 3.9629505e-39
161.8763 38.451424 1661 5.5316817e-40
175.37796 37.302345 1661 9.2159392e-39
186.35069 36.308479 1661.5 1.3551648e-38
193.53375 37.026653 1661.5 1.3366891e-38
220.85512 35.59301 1661.6666 7.289563e-39
-212.74725 45.166584 1661.4445 4.6097114e-40
-204.90503 44.590458 1662.25 6.4571973e-40
-194.97525 44.516273 1663.0909 7.3683636e-40
-184.28326 48.984634 1661 8.2867186e-40
-161.30173 48.505852 1661 5.5388284e-40
-154.9818 48.218582 1661 9.2086609e-40
-149.81096 44.196808 1661 1.0130617e-39
147.99161 47.069504 1661 4.4214119e-39
154.4642 44.787315 1661.6 3.687444e-39
164.78206 44.206253 1661.3334 3.6913565e-40
175.01392 44.250031 1663 8.1117525e-39
185.24995 44.289944 1664.5 1.3552365e-38
195.06757 44.232292 1662.3334 1.2907716e-38
203.57234 45.642605 1661.3334 1.2814084e-38
214.59552 44.975723 1663.25 1.1619141e-38
221.09879 42.826984 1663.5 7.4728753e-39
-212.93904 55.16935 1662.7 4.6061241e-40
-204.97621 54.407032 1665.75 6.4571833e-40
-195.12094 54.471779 1667.6875 7.3683636e-40
-184.99353 55.240795 1664.8 6.4464354e-40
-175.23871 56.022835 1662.4 4.6061241e-40
-165.13437 55.721802 1662 5.5316537e-40
-156.72899 54.64299 1662 6.4500087e-40
75.710976 55.698761 1661.3334 1.1988879e-39
84.313568 57.123932 1661 1.843537e-39
116.63138 55.687588 1661 5.546003e-40
121.1798 54.730022 1661 5.5424157e-40
146.07648 55.68758 1661 3.5930946e-39
155.20284 54.731358 1663.6364 3.3183098e-39
165.11523 54.37476 1664.6875 4.6025368e-40
175.1683 53.591419 1667.2 8.2039495e-39
184.68294 52.725456 1667.2 1.3736395e-38
194.33464 54.070602 1665.5385 1.3275777e-38
203.78082 53.998924 1665.1818 1.2906992e-38
211.43831 52.491966 1669 1.2630045e-38
-213.52142 64.46225 1665 2.7694142e-40
-205.0074 64.499245 1666 4.6061241e-40
-195.13026 64.566132 1667.75 4.6132988e-40
-184.83801 64.499252 1666 5.5280664e-40
-174.44685 64.386757 1663.0834 3.6913565e-40
-164.43857 64.410065 1663.6666 2.7730015e-40
-156.45886 64.749237 1661.8572 4.6132988e-40
-42.084946 65.742012 1661 8.2903059e-40
-36.339554 65.742012 1661 6.4571833e-40
75.695496 61.432976 1661 1.2914423e-39
84.743477 64.072044 1661.7273 1.5673117e-39
94.367996 62.869324 1661 2.1190449e-39
101.54973 64.305672 1661 1.4758265e-39
115.93676 64.318573 1661.3334 6.4607706e-40
145.88568 65.001312 1662.4445 2.9498776e-39
154.75011 63.67749 1666 3.3183014e-39
165.46809 63.144382 1668.25 4.6097114e-40
172.75882 61.728855 1669 3.1357164e-39
-213.30391 71.492447 1667.8 1.8546465e-40
-205.73737 72.914154 1669 4.6097114e-40
-194.52118 74.250511 1665 7.3683636e-40
-184.56108 74.470711 1663.5 4.6204734e-40
-174.57388 74.508873 1664.3125 4.6132988e-40
-164.64476 74.574257 1665.75 6.4500087e-40
-156.18776 74.388168 1661.6 5.5316537e-40
-148.3746 78.669136 1661 4.6168861e-40
-40.648598 71.487404 1661 6.4571833e-40
-36.339554 71.487404 1661 7.3755383e-40
84.313576 72.34922 1661 1.5676662e-39
91.495308 72.923744 1661 2.0289989e-39
107.29512 78.669136 1661 1.2907262e-39
117.34955 70.051056 1661 9.2086609e-40
125.60854 76.873703 1661 5.535241e-40
134.93849 75.259109 1661.8 9.2158355e-40
142.76152 72.227577 1667 2.1194023e-39
-194.02554 84.655472 1665.7 5.535241e-40
-184.61612 84.568726 1664 7.3827269e-40
-174.64668 84.618675 1665 2.7730015e-40
-164.70155 84.685577 1666.3334 4.6132988e-40
-155.7868 84.539711 1663.4445 7.3647763e-40
-145.62666 84.488106 1662.4166 7.371965e-40
-135.08839 84.773605 1661 5.5316537e-40
-128.55301 84.989059 1661 5.5388284e-40
-92.357079 84.41452 1661 6.4715326e-40
-88.048035 85.850876 1661 4.627648e-40
-40.648598 81.541832 1661 1.3811282e-39
8.1871948 85.850868 1661 1.849309e-39
11.059888 84.414528 1661 2.9552964e-39
45.532207 87.287216 1661 1.2014187e-39
107.41455 84.50914 1662.8334 1.4761923e-39
114.5923 84.500954 1662.6666 8.3082566e-40
124.8497 84.632683 1665.25 5.535241e-40
134.96498 84.653419 1665.6666 6.453596e-40
141.00699 84.821091 1669 7.382741e-40
-184.09859 92.464226 1668 1.843537e-39
-174.98901 94.882576 1668.25 1.3829162e-39
-164.66859 94.753319 1666 1.8428182e-39
-154.79785 94.80455 1665.2 2.1179687e-39
-144.86246 94.593185 1665.0769 1.9332173e-39
-135.62517 94.594048 1663.1666 1.8420979e-39
-127.83865 94.667801 1661.6666 2.3945458e-39
-116.2962 97.820427 1661 1.8435385e-39
38.829258 94.468956 1661 1.1985348e-39
45.546204 94.497253 1661.5 8.3010959e-40
53.192722 95.426514 1661 2.7765888e-40
105.5961 94.959511 1663.7693 2.3048711e-39
114.61636 93.079155 1668.25 1.2914409e-39
125.13108 90.594147 1669 5.5316537e-40
132.3474 90.594147 1669 5.5280664e-40
-219.8092 102.14027 1669 4.1458985e-39
-170.73819 102.14027 1669 1.6587899e-39
-164.17068 102.816 1668.25 2.6707782e-39
-154.74696 104.94987 1667.75 3.1313906e-39
-144.73111 105.00524 1668.6666 2.1190421e-39
-135.77541 104.77509 1665 2.1186848e-39
-126.61317 105.24565 1662.3334 2.7633269e-39
-114.62045 105.24155 1661 3.8704004e-39
-106.14602 106.24699 1661 4.6983618e-39
-72.248222 105.95972 1661 1.1052573e-39
-69.375534 105.95972 1661 1.0130617e-39
-34.082439 104.93376 1661 7.3863003e-40
39.786823 104.52338 1661 6.4787633e-40
45.581329 104.63564 1662.7778 5.546045e-40
55.236404 104.86557 1662.2727 4.6097114e-40
65.081642 106.27285 1661.4 3.6913565e-40
71.386452 107.39607 1661 1.8546465e-40
84.313576 107.39607 1661 1.0141407e-39
95.34507 105.50249 1661.3334 2.211242e-39
102.33825 103.87756 1666 2.3052327e-39
-151.49467 111.76203 1669 3.4980137e-39
-143.97406 113.63596 1668.25 2.1183261e-39
-135.79535 114.87164 1665.25 2.1183275e-39
-125.48871 114.6647 1662.25 2.4871002e-39
-115.43121 114.67094 1662.3334 3.224668e-39
-105.45026 114.76083 1663.625 4.2388158e-39
-95.730003 116.94691 1662.5714 4.239529e-39
-85.2603 117.56638 1662.625 3.3172308e-39
-74.458839 116.10276 1662.25 1.65915e-39
-65.945015 116.32971 1661.4 9.2158636e-40
-54.293892 118.16867 1661 4.6133128e-40
-44.334385 116.0336 1664.6666 9.2122482e-40
-34.924221 114.64853 1662 6.464358e-40
-26.285128 117.45049 1661 9.2194509e-40
17.383862 117.7664 1661.4 1.8510732e-40
26.141529 118.16867 1661 5.546031e-40
36.102886 115.01813 1661.4286 9.2338142e-40
45.618748 114.79101 1664.0834 7.3863703e-40
55.099384 114.43923 1664.9286 5.5280664e-40
64.980804 115.27781 1665.1428 5.5280664e-40
74.2994 114.64314 1661.9166 3.6949438e-40
84.338081 114.61317 1661.5 7.3791536e-40
94.503448 114.73877 1663.3334 1.2914451e-39
100.59557 113.68639 1669 1.8453391e-39
-141.87289 123.78925 1669 8.3118999e-40
-134.53642 125.12168 1667.5 1.0148582e-39
-124.25694 124.9341 1665 8.3082986e-40
-115.61697 124.93351 1665 1.1074182e-39
-105.67841 125.10294 1667.25 1.5680376e-39
-95.631096 125.15921 1668 1.661315e-39
-85.459984 125.04665 1666.5 1.2936115e-39
-75.272827 124.88351 1664.3334 1.0159442e-39
-66.502838 123.19588 1661 7.3863563e-40
-55.012066 124.27314 1661 4.6168861e-40
-45.089077 125.00611 1666 7.3827269e-40
-34.935287 124.74022 1662.4445 8.3154592e-40
-26.285128 123.19588 1661 1.2900115e-39
16.262325 125.13899 1663.9 3.6877972e-40
25.124413 124.57587 1665 3.7021325e-40
35.597393 124.47823 1666.6 8.3154452e-40
45.71611 125.13361 1667.6666 6.4679733e-40
53.54594 124.72515 1667.7142 7.3683636e-40
65.091255 124.6552 1669 7.3647763e-40
74.494713 125.033 1666.3334 1.8546465e-40
84.398163 124.75787 1662.6666 2.7730015e-40
94.623779 124.96725 1665.4445 4.6204874e-40
-123.38926 134.16266 1667.875 9.2230662e-40
-114.37275 135.2451 1667.875 1.0145037e-39
-103.77071 135.91267 1669 1.0159456e-39
-95.575493 135.17317 1667 1.3850896e-39
-85.421646 135.07576 1665.8125 1.1110223e-39
-75.326164 135.0511 1665.5 1.2010585e-39
-65.138306 134.83443 1662.8125 1.0152239e-39
-57.902184 134.72676 1661.5 6.4644e-40
-45.002712 134.82193 1662.6875 5.5388284e-40
-35.188541 135.16685 1662.0909 8.3046973e-40
-26.285128 136.94377 1661 7.3791396e-40
-1.8672333 137.55934 1661 3.6985311e-40
5.7277021 136.9911 1661.5714 1.8546465e-40
14.425381 134.80589 1666.5385 4.6097114e-40
25.958164 136.77863 1669 7.3755663e-40
36.042274 136.77863 1669 9.2266255e-40
45.751511 135.33534 1669 6.4679873e-40
52.67918 133.31479 1669 5.5388564e-40
67.194298 134.71681 1669 4.6168861e-40
74.977631 133.53128 1669 2.7694142e-40
84.618134 133.73335 1667 9.3270426e-41
93.949829 133.41245 1668.1428 3.6913565e-40
-121.6672 145.43822 1669 7.3899576e-40
-114.96413 144.78249 1668.1 6.4679873e-40
-103.91817 144.98067 1667.875 1.0152225e-39
-95.517586 145.17793 1666 1.1088587e-39
-85.314423 144.98073 1663.75 1.4783657e-39
-75.362701 145.20639 1666.3334 1.2936171e-39
-65.225342 145.09135 1665 1.0163057e-39
-55.422451 145.56186 1661 5.5460731e-40
-45.349369 144.47992 1661 6.4571973e-40
-34.935898 144.87663 1662.5555 6.464358e-40
-25.249144 145.05072 1661.5454 5.535241e-40
-15.376711 146.5358 1661.8 1.8546465e-40
-4.3482432 145.0184 1661.1818 3.6985311e-40
5.320467 144.8683 1662.4445 9.3629158e-41
13.993027 145.35107 1668 2.7730015e-40
25.545801 148.32475 1669 5.5424157e-40
36.507946 145.70021 1668.7 8.3118579e-40
45.751511 145.43822 1669 7.382769e-40
54.411098 147.60312 1669 1.8510732e-40
64.674309 146.40039 1669 1.8546465e-40
74.616814 146.88148 1669 2.7658409e-40
83.27639 142.55168 1669 3.6877691e-40
95.183327 145.79904 1669 1.8510592e-40
